# .PCD v0.7 - Point Cloud Data file format
VERSION 0.7
FIELDS x y z
SIZE 4 4 4
TYPE F F F
COUNT 1 1 1
WIDTH 372
HEIGHT 1
VIEWPOINT 0 0 0 1 0 0 0
POINTS 372
DATA ascii
-0.021267215 -0.030813785 0.0045717466
-0.014915509 -0.033594448 0.0035502529
-0.0052606789 -0.035615094 0.0030843525
0.0049670422 -0.035750799 0.0030848533
0.014810662 -0.033617068 0.0034232624
0.021091936 -0.030947525 0.0046909456
-0.030895289 -0.021145897 0.0050318018
-0.025551794 -0.025245272 0.0029694934
-0.015072564 -0.025196817 0
-0.0050443043 -0.024902487 0
0.0052999165 -0.025022931 0
0.014805535 -0.024933403 0
0.025529381 -0.025520455 0.0032195309
0.030873001 -0.021210637 0.0048637022
-0.033619575 -0.014800121 0.0035972581
-0.025041781 -0.014761792 0
-0.014862934 -0.014969083 0
-0.0047633001 -0.014964848 0
0.0049480698 -0.015207404 0
0.015013785 -0.01479623 0
0.024896923 -0.01504321 0
0.03368203 -0.014654333 0.0034907397
-0.035309639 -0.0048763407 0.0027694064
-0.024932146 -0.0049235993 0
-0.014951626 -0.0050449921 0
-0.0051626787 -0.005255763 0
0.0049773776 -0.0051772967 0
0.014948311 -0.0050654518 0
0.025119685 -0.0050194333 0
0.03569993 -0.0047850152 0.0030063996
-0.035454772 0.0051131966 0.0029290733
-0.024955556 0.0049619866 0
-0.014864795 0.0051123295 0
-0.0048686247 0.0051129372 0
0.0048500048 0.00505001 0
0.014996505 0.0051533747 0
0.024701174 0.0050878506 0
0.035767853 0.0050231176 0.0031825055
-0.033730224 0.014669828 0.0038340483
-0.02490489 0.014908079 0
-0.015106577 0.015322097 0
-0.0052025453 0.01496961 0
0.0050936732 0.014892458 0
0.015141733 0.014947041 0
0.025233408 0.014993792 0
0.033581391 0.014986009 0.0034859183
-0.030858362 0.021232108 0.0049319412
-0.025478968 0.025368901 0.0027302282
-0.015079015 0.024835268 0
-0.0048925169 0.024966305 0
0.004940459 0.02511883 0
0.014830261 0.02523266 0
0.025299318 0.025605371 0.0028366456
0.030888019 0.021152111 0.0048726471
-0.021261536 0.030779844 0.0045430809
-0.015074641 0.033513084 0.0035887582
-0.0050488575 0.03581021 0.0030199825
0.005202482 0.035673678 0.0028359389
0.01491213 0.033613797 0.0035500054
0.021271545 0.030798066 0.0045193392
-0.021259526 -0.030860532 0.015655102
-0.014825435 -0.034282278 0.014689241
-0.004995049 -0.037030201 0.01517026
0.004984451 -0.037039004 0.015063696
0.015033209 -0.034195624 0.015208734
0.021178784 -0.030914037 0.015287127
-0.03079078 -0.021361863 0.015542231
-0.026210198 -0.026606545 0.015042767
0.026350349 -0.026474927 0.015136928
0.030848276 -0.021279121 0.014817699
-0.034252875 -0.014911444 0.014848099
0.034109909 -0.015209403 0.014913015
-0.037049823 -0.0049771708 0.01525564
0.037016768 -0.0051117386 0.015076539
-0.037024423 0.0051312582 0.015017405
0.037029069 0.0050590369 0.015131228
-0.034204081 0.015017704 0.014976702
0.034053762 0.015346848 0.015072775
-0.030913224 0.021185668 0.014724393
-0.026652355 0.026193587 0.015082026
0.026301367 0.026527036 0.015050186
0.031026846 0.021016574 0.014799892
-0.021103345 0.030969461 0.014651855
-0.014828497 0.034272179 0.015206201
-0.005108722 0.037024785 0.015075367
0.0050721359 0.037033711 0.014830311
0.015364673 0.034060106 0.015067472
0.021263974 0.0308579 0.014861518
-0.021454744 -0.030723117 0.025033757
-0.015020171 -0.034197487 0.024831427
-0.0052889013 -0.036993768 0.02489973
0.0052315928 -0.037006486 0.025223356
0.01503249 -0.034212161 0.025112292
0.02120653 -0.030896623 0.024912277
-0.030972388 -0.021098234 0.024559788
-0.026346257 -0.026493778 0.025256582
0.026371175 -0.026470611 0.025185242
0.030872477 -0.021239802 0.024738861
-0.03413891 -0.015158182 0.025171984
0.034307722 -0.014781692 0.024733689
-0.037072569 -0.0046776645 0.024920691
0.03703595 -0.0050132643 0.025123395
-0.037008289 0.0051801489 0.024952849
0.037024677 0.005080028 0.024983551
-0.034055226 0.015366597 0.024980791
0.034228615 0.014924758 0.02497061
-0.030862525 0.021259837 0.024602918
-0.026671525 0.026164496 0.02474514
0.02642969 0.026409933 0.024923604
0.030943085 0.021135891 0.024743987
-0.021193037 0.030906292 0.024957964
-0.014983851 0.034218658 0.025059305
-0.0050057624 0.037039366 0.025114898
0.0052393009 0.036995899 0.025048796
0.015070149 0.034174562 0.024911758
0.021294612 0.030835291 0.024804147
-0.021290105 -0.030840417 0.035203334
-0.015143255 -0.034141131 0.035090245
-0.0050932295 -0.037033245 0.035018239
0.0047388775 -0.037063316 0.035085883
0.014971236 -0.03422647 0.034998167
0.021315914 -0.030821415 0.034807164
-0.030912427 -0.021186002 0.034940731
-0.026481614 -0.026318936 0.035111658
0.026376501 -0.026446171 0.034968462
0.030887602 -0.021217545 0.034672484
-0.034159888 -0.015122237 0.035141971
0.034273863 -0.014848743 0.034961432
-0.037043121 -0.0049909195 0.03492856
0.0370401 -0.0049653342 0.035058793
-0.037058968 0.0048241625 0.034789938
0.037047498 0.0049592787 0.034982324
-0.034294881 0.014807233 0.034849316
0.03413472 0.015156539 0.034899063
-0.030886687 0.021223979 0.034550998
-0.026636809 0.026194274 0.035172433
0.026575871 0.026248114 0.035307113
0.03081621 0.021316117 0.0352646
-0.021248005 0.030869104 0.034642294
-0.01509302 0.034169339 0.035074215
-0.0049731345 0.037047666 0.034970392
0.0047685201 0.03706171 0.034919456
0.01513518 0.034148511 0.035100948
0.021290256 0.030839192 0.034894899
-0.021193741 -0.030905938 0.044987261
-0.015101951 -0.034172457 0.045251567
-0.0049350513 -0.037044242 0.045109283
0.0049400846 -0.037048478 0.044982921
0.015041685 -0.03419124 0.045222379
0.021248514 -0.030867657 0.045257457
-0.030901859 -0.021200638 0.044618901
-0.026356252 -0.026474519 0.045010459
0.026479565 -0.026356786 0.045058273
0.030828295 -0.021304423 0.045158073
-0.034084681 -0.015275413 0.044812433
0.034130368 -0.015184455 0.045028783
-0.037036762 -0.0049679847 0.04503287
0.037069116 -0.0047241719 0.045186721
-0.037046485 0.0049198503 0.045098387
0.037014801 0.0051678573 0.044863138
-0.034080271 0.015296066 0.045271143
0.034200653 0.015019901 0.045057315
-0.03085022 0.02127596 0.044708788
-0.026502829 0.026341481 0.045252927
0.026461646 0.026374009 0.04480705
0.030845117 0.0212793 0.044872869
-0.021204244 0.030898938 0.044922937
-0.015016943 0.03419726 0.045082062
-0.0049838703 0.037043761 0.045389824
0.0049909372 0.037045632 0.044887561
0.015234113 0.034112744 0.044945933
0.021237319 0.030876059 0.04476716
-0.021256274 -0.030862873 0.0547252
-0.015149764 -0.034147486 0.054727957
-0.0050152191 -0.037028462 0.055058207
0.0051488127 -0.037008643 0.055151645
0.015256275 -0.03407805 0.054980129
0.021175064 -0.030920647 0.054831643
-0.030818457 -0.021323858 0.055158127
-0.026315283 -0.02651233 0.054736272
0.026193637 -0.026635405 0.055059351
0.030873997 -0.021239484 0.055374742
-0.034115147 -0.015228944 0.054829203
0.034248803 -0.014913387 0.055176232
-0.037038583 -0.0050185253 0.054921519
0.037035286 -0.0049991985 0.055072974
-0.036985364 0.0054105432 0.054998193
0.037058659 0.0048182989 0.05479493
-0.034093622 0.015268074 0.054929234
0.034083381 0.01527928 0.054612454
-0.030835824 0.021297431 0.054586813
-0.026552737 0.026262317 0.055033915
0.026579481 0.026249239 0.054801248
0.030890534 0.021211749 0.054937582
-0.021390729 0.030769205 0.054801419
-0.014823169 0.03428939 0.055095367
-0.0053538927 0.036985457 0.054963581
0.0050331196 0.03702962 0.055251099
0.015232394 0.034098465 0.055040624
0.021337343 0.030806411 0.055232171
-0.021284236 -0.030843658 0.064938433
-0.015173486 -0.034119297 0.065051697
-0.0049627624 -0.037037551 0.06500487
0.0046264189 -0.037087154 0.064879186
0.015021832 -0.034200545 0.065278873
0.021225329 -0.030883612 0.065021776
-0.030864827 -0.021256208 0.06489069
-0.02636238 -0.02647469 0.065004393
0.026666062 -0.02616387 0.065296166
0.030844485 -0.021279432 0.064697914
-0.034134388 -0.015161633 0.064839281
0.034101475 -0.015217884 0.065125406
-0.037050169 -0.0048872959 0.065348841
0.037000142 -0.0052378466 0.064979784
-0.037003696 0.0051802951 0.064923584
0.037050672 0.0048046554 0.065200403
-0.034105729 0.015235405 0.065099895
0.034170579 0.015094899 0.065112472
-0.030836187 0.021297107 0.064778425
-0.026383746 0.026459029 0.064865693
0.026388079 0.026439264 0.06466078
0.030864194 0.021251719 0.065083273
-0.021293895 0.030835977 0.065104149
-0.014965127 0.034215827 0.064760022
-0.0047202907 0.037074685 0.065161146
0.0046795215 0.03707917 0.064926676
0.015121065 0.034151811 0.064973705
0.021392865 0.030768445 0.064942822
-0.021276139 -0.030849332 0.07483317
-0.015148707 -0.034148749 0.075208224
-0.0050160331 -0.03703275 0.074939154
0.0049290112 -0.037036575 0.075135775
0.015000342 -0.034200806 0.074863575
0.021411775 -0.030754741 0.075347312
-0.03085742 -0.021266317 0.074967913
-0.026393637 -0.026427431 0.075141452
0.026474191 -0.026351998 0.075041644
0.030927733 -0.021164402 0.074877046
-0.034046259 -0.015397902 0.075142719
0.034109361 -0.015239825 0.074900255
-0.037042778 -0.0049969577 0.074995048
0.037097994 -0.0045907749 0.075063266
-0.037048649 0.0048636277 0.074742042
0.037020713 0.0051094214 0.074774198
-0.034202244 0.015001454 0.075040698
0.034202281 0.015021023 0.074823529
-0.030873705 0.021241738 0.075024962
-0.026341444 0.026488846 0.07506717
0.02634415 0.026480824 0.075019009
0.030893659 0.021204611 0.0753031
-0.021168079 0.0309237 0.074986875
-0.015125521 0.034144279 0.075216383
-0.0048005902 0.037065275 0.074911833
0.0050603445 0.037017349 0.074681342
0.015393659 0.034015544 0.075040892
0.021401456 0.030764397 0.074105486
-0.021185018 -0.030913033 0.085019559
-0.014984626 -0.034215823 0.085029937
-0.0048051323 -0.037062522 0.084802322
0.0051625692 -0.037018169 0.084764041
0.015127338 -0.034153692 0.085069343
0.021406291 -0.030760244 0.084465638
-0.030862337 -0.021258948 0.085097417
-0.026369086 -0.026465185 0.084768631
0.026263835 -0.026569586 0.085239209
0.030935286 -0.021145456 0.084936798
-0.034132447 -0.015166729 0.085159868
0.034105685 -0.015218502 0.085091241
-0.03702103 -0.0050657932 0.084993683
0.037024405 -0.0050915284 0.085119896
-0.037030786 0.0050709895 0.084710449
0.036985558 0.0053366553 0.084696993
-0.034180224 0.01506456 0.084970288
0.034089319 0.015266017 0.084923074
-0.030972928 0.021097362 0.08535549
-0.026348038 0.026474947 0.08485765
0.026303386 0.026531635 0.084877811
0.030880725 0.021224456 0.085240856
-0.021328418 0.030812392 0.085575186
-0.014882693 0.03425651 0.08507286
-0.0052171899 0.037005335 0.085156612
0.0049115447 0.037042852 0.084851362
0.015335653 0.034066394 0.085092545
0.021149436 0.030936519 0.08518815
-0.021338699 -0.030804032 0.09450192
-0.014843959 -0.034273028 0.095069095
-0.0051736934 -0.037013892 0.095036857
0.0048654778 -0.037060313 0.095005192
0.015014626 -0.034203626 0.094916336
0.021285592 -0.030839147 0.095154747
-0.030860731 -0.021260262 0.095167764
-0.026388397 -0.026434477 0.095299453
0.02643105 -0.026377456 0.094990961
0.030903604 -0.021197997 0.095012128
-0.034151986 -0.01514091 0.095090315
0.034156457 -0.01514711 0.095128722
-0.037004352 -0.0051736645 0.094915092
0.037066583 -0.0047578611 0.09470731
-0.037058957 0.0048663658 0.095027193
0.037057284 0.0048230146 0.09531945
-0.034195371 0.015045913 0.09499038
0.034195442 0.015023146 0.095034987
-0.03089037 0.02121852 0.094807349
-0.026226446 0.026612926 0.095085748
0.026227523 0.026605571 0.095226035
0.030790383 0.021358751 0.095353417
-0.021242529 0.030873114 0.095410958
-0.015313589 0.034069959 0.09487693
-0.0049583381 0.037037108 0.095003933
0.0050866348 0.03703101 0.094786465
0.01506857 0.034171928 0.094896533
0.02133346 0.030809494 0.094870239
-0.02140275 -0.030709352 0.10253784
-0.01461539 -0.033372767 0.10371064
-0.0050129113 -0.034886915 0.10397048
0.0047734668 -0.035111297 0.10387181
0.014685673 -0.03338936 0.1034272
0.021202227 -0.030843852 0.10251411
-0.03091616 -0.021065108 0.10335229
-0.025080305 -0.025147593 0.10379026
-0.01488091 -0.025032882 0.10499967
-0.0048119822 -0.025136137 0.10499966
0.005023228 -0.02477622 0.10499966
0.015257917 -0.024974138 0.10499966
0.024943937 -0.025038175 0.10408179
0.03074372 -0.021307146 0.10278135
-0.033503313 -0.014722075 0.10348412
-0.024923401 -0.014975435 0.10499968
-0.014828439 -0.014926868 0.10499967
-0.0050879843 -0.015029809 0.10499966
0.0049235858 -0.015042644 0.10499967
0.015311984 -0.014822995 0.10499966
0.024838228 -0.014894787 0.10499967
0.033262257 -0.014870464 0.10343532
-0.034932587 -0.004696473 0.10392517
-0.025177408 -0.004687164 0.10499967
-0.014845446 -0.005118899 0.10499966
-0.0049115773 -0.0050818538 0.10499966
0.0053547742 -0.0048465072 0.10499966
0.014839347 -0.0052308063 0.10499967
0.025192676 -0.0049010199 0.10499967
0.034961171 -0.0049225911 0.10379042
-0.035205804 0.0048078885 0.10378201
-0.024793122 0.0052071633 0.10499967
-0.015316163 0.0048952014 0.10499967
-0.0050221616 0.0049817786 0.10499967
0.0049660224 0.004899289 0.10499967
0.015001971 0.004909615 0.10499967
0.025021741 0.0050663422 0.10499967
0.035110567 0.0048077526 0.10383177
-0.033169366 0.014686705 0.10374626
-0.024936184 0.01511048 0.10499967
-0.015042562 0.014867242 0.10499967
-0.0049989931 0.015270134 0.10499966
0.0051851054 0.015259609 0.10499967
0.014626031 0.014929921 0.10499967
0.025186693 0.014967282 0.10499966
0.033209726 0.014998866 0.10370236
-0.030831065 0.021188762 0.10318715
-0.024970463 0.02522029 0.10387159
-0.014741454 0.024917671 0.10499966
-0.0048816134 0.025193665 0.10499967
0.005207228 0.024949269 0.10499965
0.015300282 0.024772093 0.10499967
0.0251499 0.025090346 0.10391054
0.030812144 0.021173319 0.10316729
-0.020997608 0.03092829 0.1028467
-0.014519826 0.033433337 0.10364743
-0.0051659779 0.034959819 0.10392147
0.0050442927 0.03508839 0.10386221
0.014651223 0.033343639 0.10357571
0.021177769 0.030842852 0.10281664
